8.041134,-9.929974,50.8
-6.849855,8.458866,51.0
-5.9563956,7.3555365,51.2
-5.3607554,6.619982,51.4
-3.871657,4.7810984,51.6
-2.0847385,2.5744376,51.8
-1.4890989,1.8388841,52.0
1.4890989,-1.8388841,52.2
2.6803777,-3.309991,52.4
4.169477,-5.148875,52.6
0.5956395,-0.7355536,52.8
0.5956395,-0.7355536,53.0
1.7869188,-2.206661,53.2
1.7869188,-2.206661,53.4
2.9781978,-3.6777682,53.6
2.9781978,-3.6777682,53.8
3.2760177,-4.045545,54.0
4.765116,-5.884429,54.2
5.062937,-6.2522063,54.4
5.062937,-6.2522063,54.6
5.3607554,-6.619982,54.8
5.6585755,-6.987759,55.0
6.2542152,-7.723313,55.2
-16.975727,20.963278,55.4
9.530232,-11.768858,56.2
12.210611,-15.078849,56.6
13.104071,-16.18218,57.0
19.358286,-23.905493,59.4
20.251747,-25.008825,59.8
20.251747,-25.008825,60.0
21.145203,-26.112152,60.4
22.038664,-27.215483,60.6
-17.571367,21.698832,62.4
-17.571367,21.698832,62.6
-17.571367,21.698832,62.8
26.505959,-32.732136,77.6
28.5907,-35.306576,77.8
28.888517,-35.674347,78.0
31.866714,-39.352116,78.2
33.951454,-41.926556,78.4
36.33401,-44.86877,78.6
36.631832,-45.236546,78.8
-15.188808,18.756617,81.6
-5.066554,5.626977,0.6
-17.09962,18.991047,7.4
-17.09962,18.991047,7.6
3.1665964,-3.5168607,9.6
-1.2666385,1.4067442,10.4
-1.8999579,2.1101165,10.8
-6.966512,7.7370934,11.2
-13.616365,15.122501,27.4
-13.616365,15.122501,27.6
-4.1165752,4.5719185,28.4
-3.7999158,4.220233,28.6
-3.483256,3.8685467,28.8
-3.483256,3.8685467,29.0
-3.7999158,4.220233,29.2
-5.066554,5.626977,29.4
-4.1165752,4.5719185,29.6
-4.1165752,4.5719185,29.8
-5.3832145,5.9786634,30.0
-1.5832982,1.7584304,30.2
-3.7999158,4.220233,30.4
0.63331926,-0.7033721,30.6
-1.5832982,1.7584304,30.8
0.0,-0.0,31.0
8.86647,-9.847209,31.2
9.18313,-10.198895,31.4
9.18313,-10.198895,31.6
9.18313,-10.198895,31.8
9.18313,-10.198895,32.0
8.86647,-9.847209,32.2
9.18313,-10.198895,32.4
8.86647,-9.847209,32.6
9.18313,-10.198895,32.8
8.86647,-9.847209,33.0
8.86647,-9.847209,33.2
8.86647,-9.847209,33.4
9.18313,-10.198895,33.6
8.86647,-9.847209,33.8
8.86647,-9.847209,34.0
9.18313,-10.198895,34.2
8.86647,-9.847209,34.4
9.18313,-10.198895,34.6
8.86647,-9.847209,34.8
8.86647,-9.847209,35.0
8.86647,-9.847209,35.2
8.86647,-9.847209,35.4
8.86647,-9.847209,35.6
8.54981,-9.495523,35.8
8.54981,-9.495523,36.0
8.86647,-9.847209,36.2
8.54981,-9.495523,36.4
8.54981,-9.495523,36.6
8.54981,-9.495523,36.8
8.54981,-9.495523,37.0
8.54981,-9.495523,37.2
8.54981,-9.495523,37.4
8.54981,-9.495523,37.6
8.54981,-9.495523,37.8
8.54981,-9.495523,38.0
8.54981,-9.495523,38.2
8.54981,-9.495523,38.4
8.54981,-9.495523,38.6
8.54981,-9.495523,38.8
8.54981,-9.495523,39.0
8.54981,-9.495523,39.2
8.54981,-9.495523,39.4
8.54981,-9.495523,39.6
8.54981,-9.495523,39.8
8.54981,-9.495523,40.0
8.54981,-9.495523,40.2
8.54981,-9.495523,40.4
8.54981,-9.495523,40.6
8.54981,-9.495523,40.8
8.54981,-9.495523,41.0
8.54981,-9.495523,41.2
8.2331505,-9.143837,41.4
8.2331505,-9.143837,41.6
8.54981,-9.495523,41.8
8.2331505,-9.143837,42.0
8.2331505,-9.143837,42.2
8.2331505,-9.143837,42.4
8.2331505,-9.143837,42.6
8.2331505,-9.143837,42.8
8.54981,-9.495523,43.0
8.2331505,-9.143837,43.2
8.2331505,-9.143837,43.4
8.2331505,-9.143837,43.6
8.54981,-9.495523,43.8
8.2331505,-9.143837,44.0
8.2331505,-9.143837,44.2
8.2331505,-9.143837,44.4
8.2331505,-9.143837,44.6
8.2331505,-9.143837,44.8
8.2331505,-9.143837,45.0
8.2331505,-9.143837,45.2
8.2331505,-9.143837,45.4
8.2331505,-9.143837,45.6
8.2331505,-9.143837,45.8
8.2331505,-9.143837,46.0
8.2331505,-9.143837,46.2
8.2331505,-9.143837,46.4
8.2331505,-9.143837,46.6
8.2331505,-9.143837,46.8
8.2331505,-9.143837,47.0
7.916491,-8.792151,47.2
7.916491,-8.792151,47.4
7.916491,-8.792151,47.6
7.916491,-8.792151,47.8
8.2331505,-9.143837,48.0
7.916491,-8.792151,48.2
7.916491,-8.792151,48.4
8.2331505,-9.143837,48.6
8.54981,-9.495523,48.8
7.916491,-8.792151,49.0
7.916491,-8.792151,49.2
8.2331505,-9.143837,49.4
8.2331505,-9.143837,49.6
7.916491,-8.792151,49.8
7.916491,-8.792151,50.0
8.54981,-9.495523,50.2
8.54981,-9.495523,50.4
7.916491,-8.792151,50.6
7.916491,-8.792151,50.8
-7.5998316,8.440466,51.0
-6.333193,7.0337214,51.2
-5.699873,6.3303485,51.4
-3.7999158,4.220233,51.6
-1.8999579,2.1101165,51.8
-1.5832982,1.7584304,52.0
1.5832982,-1.7584304,52.2
4.433235,-4.9236045,52.4
4.433235,-4.9236045,52.6
5.066554,-5.626977,52.8
1.5832982,-1.7584304,53.0
1.5832982,-1.7584304,53.2
2.533277,-2.8134885,53.4
-12.983046,14.419128,53.6
1.8999579,-2.1101165,53.8
2.2166176,-2.4618022,54.0
4.7498946,-5.275291,54.2
5.3832145,-5.9786634,54.4
5.3832145,-5.9786634,54.6
6.6498523,-7.385407,54.8
6.333193,-7.0337214,55.0
-17.73294,19.694418,55.2
-18.36626,20.39779,55.4
8.86647,-9.847209,55.6
9.18313,-10.198895,55.8
12.983046,-14.419128,56.8
17.73294,-19.694418,58.6
19.632896,-21.804535,59.0
19.632896,-21.804535,59.2
20.266216,-22.507908,59.4
24.699453,-27.431513,61.0
-18.36626,20.39779,62.4
-18.36626,20.39779,62.6
28.182707,-31.300056,77.6
30.399326,-33.761864,77.8
30.715984,-34.113544,78.0
33.56592,-37.278725,78.2
35.78254,-39.740524,78.4
38.315815,-42.554012,78.6
38.949135,-43.257385,78.8
-16.149641,17.93599,81.6
-6.3579993,6.357995,1.4
-7.027262,7.0272574,1.6
-4.6848416,4.6848383,1.8
-6.3579993,6.357995,4.6
-19.073997,19.073984,26.6
-20.412523,20.41251,28.0
-19.073997,19.073984,28.2
-4.0155787,4.015576,28.8
-4.0155787,4.015576,29.0
-5.3541045,5.354101,29.2
-5.019473,5.0194697,29.4
-5.019473,5.0194697,29.6
-5.019473,5.0194697,29.8
-2.0077894,2.007788,30.0
-1.0038947,1.003894,30.2
-4.0155787,4.015576,30.4
-4.3502097,4.350207,30.6
-2.6770523,2.6770506,30.8
8.700419,-8.700414,31.0
8.365788,-8.365783,31.2
9.704315,-9.7043085,31.4
9.704315,-9.7043085,31.6
9.704315,-9.7043085,31.8
9.704315,-9.7043085,32.0
9.369683,-9.369677,32.2
9.704315,-9.7043085,32.4
9.704315,-9.7043085,32.6
9.704315,-9.7043085,32.8
9.369683,-9.369677,33.0
9.369683,-9.369677,33.2
9.369683,-9.369677,33.4
9.369683,-9.369677,33.6
9.369683,-9.369677,33.8
9.369683,-9.369677,34.0
9.369683,-9.369677,34.2
9.369683,-9.369677,34.4
9.369683,-9.369677,34.6
9.369683,-9.369677,34.8
9.369683,-9.369677,35.0
9.369683,-9.369677,35.2
9.369683,-9.369677,35.4
9.369683,-9.369677,35.6
9.035051,-9.035046,35.8
9.035051,-9.035046,36.0
9.035051,-9.035046,36.2
9.035051,-9.035046,36.4
9.035051,-9.035046,36.6
9.035051,-9.035046,36.8
9.035051,-9.035046,37.0
9.035051,-9.035046,37.2
9.035051,-9.035046,37.4
9.035051,-9.035046,37.6
9.035051,-9.035046,37.8
9.035051,-9.035046,38.0
9.035051,-9.035046,38.2
9.035051,-9.035046,38.4
9.035051,-9.035046,38.6
9.035051,-9.035046,38.8
9.035051,-9.035046,39.0
9.035051,-9.035046,39.2
9.035051,-9.035046,39.4
9.035051,-9.035046,39.6
9.035051,-9.035046,39.8
9.035051,-9.035046,40.0
9.035051,-9.035046,40.2
9.035051,-9.035046,40.4
9.035051,-9.035046,40.6
9.035051,-9.035046,40.8
9.035051,-9.035046,41.0
9.035051,-9.035046,41.2
8.700419,-8.700414,41.4
9.035051,-9.035046,41.6
9.035051,-9.035046,41.8
9.035051,-9.035046,42.0
8.700419,-8.700414,42.2
8.700419,-8.700414,42.4
8.700419,-8.700414,42.6
8.700419,-8.700414,42.8
8.700419,-8.700414,43.0
8.700419,-8.700414,43.2
8.700419,-8.700414,43.4
8.700419,-8.700414,43.6
8.700419,-8.700414,43.8
8.700419,-8.700414,44.0
8.700419,-8.700414,44.2
8.700419,-8.700414,44.4
8.700419,-8.700414,44.6
8.700419,-8.700414,44.8
8.700419,-8.700414,45.0
8.700419,-8.700414,45.2
8.700419,-8.700414,45.4
8.700419,-8.700414,45.6
8.700419,-8.700414,45.8
8.700419,-8.700414,46.0
8.700419,-8.700414,46.2
8.700419,-8.700414,46.4
8.700419,-8.700414,46.6
8.700419,-8.700414,46.8
8.700419,-8.700414,47.0
8.365788,-8.365783,47.2
8.700419,-8.700414,47.4
8.700419,-8.700414,47.6
8.365788,-8.365783,47.8
8.365788,-8.365783,48.0
8.365788,-8.365783,48.2
8.365788,-8.365783,48.4
8.700419,-8.700414,48.6
8.700419,-8.700414,48.8
8.700419,-8.700414,49.0
8.700419,-8.700414,49.2
8.365788,-8.365783,49.4
8.700419,-8.700414,49.6
8.700419,-8.700414,49.8
8.700419,-8.700414,50.0
9.035051,-9.035046,50.2
14.389157,-14.389148,50.4
8.0311575,-8.031152,50.6
8.0311575,-8.031152,50.8
-7.6965256,7.6965203,51.0
-7.027262,7.0272574,51.2
-5.6887364,5.6887326,51.4
-3.3463156,3.3463132,51.6
-3.0116837,3.0116816,51.8
-1.6731578,1.6731566,52.0
2.0077894,-2.007788,52.2
4.0155787,-4.015576,52.4
4.6848416,-4.6848383,52.6
5.3541045,-5.354101,52.8
5.3541045,-5.354101,53.0
2.3424208,-2.3424191,53.2
3.0116837,-3.0116816,53.4
3.0116837,-3.0116816,53.6
2.3424208,-2.3424191,53.8
2.3424208,-2.3424191,54.0
5.6887364,-5.6887326,54.2
5.3541045,-5.354101,54.4
6.3579993,-6.357995,54.6
7.027262,-7.0272574,54.8
7.027262,-7.0272574,55.0
-19.073997,19.073984,55.2
-19.073997,19.073984,55.4
-19.743261,19.743248,55.6
-19.073997,19.073984,55.8
12.381367,-12.381359,56.4
20.747154,-20.74714,59.0
21.416418,-21.416405,59.4
21.75105,-21.751036,59.6
26.770525,-26.770506,61.0
-19.40863,19.408617,62.4
-19.40863,19.408617,62.6
30.451471,-30.45145,77.6
32.12463,-32.124607,77.8
32.45926,-32.459236,78.0
35.805573,-35.80555,78.2
37.813362,-37.81334,78.4
40.490417,-40.490387,78.6
41.49431,-41.49428,78.8
-17.066208,17.066196,81.6
-16.529247,14.882998,6.6
-9.495525,8.5498085,11.0
-17.935991,16.149637,28.0
-15.122503,13.616362,28.2
-18.639364,16.782957,28.4
-4.2202334,3.7999148,28.6
-3.8685474,3.4832554,28.8
-3.5168612,3.1665957,29.0
-3.5168612,3.1665957,29.2
-5.2752914,4.749893,29.4
-5.2752914,4.749893,29.6
-5.626978,5.066553,29.8
-5.626978,5.066553,30.0
-3.5168612,3.1665957,30.2
-4.5719194,4.1165743,30.4
1.4067445,-1.2666383,30.6
2.1101167,-1.8999574,30.8
3.1651747,-2.8499358,31.0
10.198897,-9.183127,31.2
10.198897,-9.183127,31.4
10.198897,-9.183127,31.6
10.198897,-9.183127,31.8
9.847211,-8.866467,32.0
9.847211,-8.866467,32.2
9.847211,-8.866467,32.4
9.847211,-8.866467,32.6
10.198897,-9.183127,32.8
9.847211,-8.866467,33.0
9.847211,-8.866467,33.2
9.847211,-8.866467,33.4
9.847211,-8.866467,33.6
9.847211,-8.866467,33.8
9.847211,-8.866467,34.0
10.198897,-9.183127,34.2
10.198897,-9.183127,34.4
9.847211,-8.866467,34.6
9.847211,-8.866467,34.8
9.847211,-8.866467,35.0
9.847211,-8.866467,35.2
9.847211,-8.866467,35.4
9.847211,-8.866467,35.6
9.495525,-8.5498085,35.8
9.495525,-8.5498085,36.0
9.847211,-8.866467,36.2
9.495525,-8.5498085,36.4
9.495525,-8.5498085,36.6
9.495525,-8.5498085,36.8
9.495525,-8.5498085,37.0
9.495525,-8.5498085,37.2
9.495525,-8.5498085,37.4
9.495525,-8.5498085,37.6
9.495525,-8.5498085,37.8
9.495525,-8.5498085,38.0
9.495525,-8.5498085,38.2
9.495525,-8.5498085,38.4
9.495525,-8.5498085,38.6
9.495525,-8.5498085,38.8
9.495525,-8.5498085,39.0
9.495525,-8.5498085,39.2
9.495525,-8.5498085,39.4
9.495525,-8.5498085,39.6
9.495525,-8.5498085,39.8
9.495525,-8.5498085,40.0
9.495525,-8.5498085,40.2
9.495525,-8.5498085,40.4
9.495525,-8.5498085,40.6
9.495525,-8.5498085,40.8
9.495525,-8.5498085,41.0
9.495525,-8.5498085,41.2
9.143839,-8.233149,41.4
9.143839,-8.233149,41.6
9.495525,-8.5498085,41.8
9.143839,-8.233149,42.0
9.143839,-8.233149,42.2
9.143839,-8.233149,42.4
9.143839,-8.233149,42.6
9.143839,-8.233149,42.8
9.143839,-8.233149,43.0
9.143839,-8.233149,43.2
9.143839,-8.233149,43.4
9.143839,-8.233149,43.6
9.143839,-8.233149,43.8
9.143839,-8.233149,44.0
9.143839,-8.233149,44.2
9.143839,-8.233149,44.4
9.143839,-8.233149,44.6
9.143839,-8.233149,44.8
9.143839,-8.233149,45.0
9.143839,-8.233149,45.2
9.143839,-8.233149,45.4
9.143839,-8.233149,45.6
9.143839,-8.233149,45.8
9.143839,-8.233149,46.0
8.792152,-7.916489,46.2
9.143839,-8.233149,46.4
9.143839,-8.233149,46.6
9.143839,-8.233149,46.8
9.143839,-8.233149,47.0
9.143839,-8.233149,47.2
9.143839,-8.233149,47.4
9.143839,-8.233149,47.6
8.792152,-7.916489,47.8
8.792152,-7.916489,48.0
8.792152,-7.916489,48.2
8.792152,-7.916489,48.4
8.792152,-7.916489,48.6
9.143839,-8.233149,48.8
8.792152,-7.916489,49.0
8.792152,-7.916489,49.2
9.143839,-8.233149,49.4
9.143839,-8.233149,49.6
9.495525,-8.5498085,49.8
8.792152,-7.916489,50.0
9.495525,-8.5498085,50.2
8.792152,-7.916489,50.4
8.792152,-7.916489,50.6
8.792152,-7.916489,50.8
-8.08878,7.2831697,51.0
-7.0337224,6.3331914,51.2
-7.0337224,6.3331914,51.4
-3.5168612,3.1665957,51.6
-2.813489,2.5332766,51.8
-1.7584306,1.5832978,52.0
2.1101167,-1.8999574,52.2
3.5168612,-3.1665957,52.4
5.626978,-5.066553,52.6
5.626978,-5.066553,52.8
0.70337224,-0.63331914,53.0
2.1101167,-1.8999574,53.2
2.1101167,-1.8999574,53.4
2.813489,-2.5332766,53.6
2.4618027,-2.2166169,53.8
5.9786644,-5.383213,54.0
4.5719194,-4.1165743,54.2
5.626978,-5.066553,54.4
5.9786644,-5.383213,54.6
5.9786644,-5.383213,54.8
7.0337224,-6.3331914,55.0
7.3854084,-6.649851,55.2
-21.452852,19.316233,55.4
11.957329,-10.766426,56.2
19.342735,-17.416275,58.2
19.694422,-17.732935,58.4
22.507912,-20.266212,59.4
23.211283,-20.89953,59.6
23.914658,-21.532852,59.8
23.914658,-21.532852,60.0
28.13489,-25.332766,61.2
28.13489,-25.332766,61.4
-20.397795,18.366255,62.4
-20.397795,18.366255,62.6
30.94838,-27.866043,77.6
33.761868,-30.399319,77.8
34.113552,-30.715975,78.0
37.27873,-33.565914,78.2
40.092216,-36.09919,78.4
42.55402,-38.315807,78.6
43.609077,-39.265785,78.8
-17.935991,16.149637,81.6
-12.136637,9.82805,26.4
-19.859951,16.082264,28.8
-17.65329,14.295346,29.0
-5.88443,4.7651153,29.2
-5.88443,4.7651153,29.4
-5.88443,4.7651153,29.6
-4.4133224,3.5738366,29.8
-5.88443,4.7651153,30.0
-5.516653,4.467295,30.2
-5.516653,4.467295,30.4
-5.516653,4.467295,30.6
-5.516653,4.467295,30.8
25.00883,-20.25174,31.0
10.297752,-8.338951,31.2
10.297752,-8.338951,31.4
11.401082,-9.23241,31.6
11.401082,-9.23241,31.8
11.033306,-8.93459,32.0
10.665529,-8.636771,32.2
10.665529,-8.636771,32.4
10.665529,-8.636771,32.6
10.665529,-8.636771,32.8
10.665529,-8.636771,33.0
10.665529,-8.636771,33.2
10.665529,-8.636771,33.4
10.665529,-8.636771,33.6
10.665529,-8.636771,33.8
10.665529,-8.636771,34.0
10.665529,-8.636771,34.2
10.665529,-8.636771,34.4
10.665529,-8.636771,34.6
10.665529,-8.636771,34.8
10.665529,-8.636771,35.0
10.665529,-8.636771,35.2
10.665529,-8.636771,35.4
10.665529,-8.636771,35.6
10.665529,-8.636771,35.8
10.665529,-8.636771,36.0
10.665529,-8.636771,36.2
10.665529,-8.636771,36.4
10.665529,-8.636771,36.6
10.665529,-8.636771,36.8
10.665529,-8.636771,37.0
10.665529,-8.636771,37.2
10.665529,-8.636771,37.4
10.297752,-8.338951,37.6
10.297752,-8.338951,37.8
10.297752,-8.338951,38.0
10.297752,-8.338951,38.2
10.297752,-8.338951,38.4
10.297752,-8.338951,38.6
10.297752,-8.338951,38.8
10.297752,-8.338951,39.0
10.297752,-8.338951,39.2
10.297752,-8.338951,39.4
10.297752,-8.338951,39.6
10.297752,-8.338951,39.8
10.297752,-8.338951,40.0
10.297752,-8.338951,40.2
10.297752,-8.338951,40.4
10.297752,-8.338951,40.6
9.9299755,-8.041132,40.8
9.9299755,-8.041132,41.0
9.9299755,-8.041132,41.2
9.9299755,-8.041132,41.4
9.9299755,-8.041132,41.6
9.9299755,-8.041132,41.8
9.9299755,-8.041132,42.0
9.9299755,-8.041132,42.2
9.9299755,-8.041132,42.4
9.9299755,-8.041132,42.6
9.9299755,-8.041132,42.8
9.9299755,-8.041132,43.0
9.9299755,-8.041132,43.2
9.9299755,-8.041132,43.4
9.9299755,-8.041132,43.6
9.9299755,-8.041132,43.8
9.9299755,-8.041132,44.0
9.9299755,-8.041132,44.2
9.9299755,-8.041132,44.4
9.9299755,-8.041132,44.6
9.9299755,-8.041132,44.8
9.9299755,-8.041132,45.0
9.9299755,-8.041132,45.2
9.9299755,-8.041132,45.4
9.9299755,-8.041132,45.6
9.9299755,-8.041132,45.8
9.9299755,-8.041132,46.0
9.9299755,-8.041132,46.2
9.9299755,-8.041132,46.4
9.9299755,-8.041132,46.6
9.562199,-7.743312,46.8
9.9299755,-8.041132,47.0
9.562199,-7.743312,47.2
9.562199,-7.743312,47.4
9.562199,-7.743312,47.6
9.562199,-7.743312,47.8
9.562199,-7.743312,48.0
9.562199,-7.743312,48.2
9.562199,-7.743312,48.4
9.562199,-7.743312,48.6
9.562199,-7.743312,48.8
9.562199,-7.743312,49.0
9.562199,-7.743312,49.2
9.562199,-7.743312,49.4
9.562199,-7.743312,49.6
9.9299755,-8.041132,49.8
9.562199,-7.743312,50.0
9.562199,-7.743312,50.2
9.9299755,-8.041132,50.4
9.9299755,-8.041132,50.6
9.562199,-7.743312,50.8
9.194422,-7.4454923,51.0
-7.3555374,5.956394,51.2
-6.2522073,5.062935,51.4
-3.6777687,2.978197,51.6
-1.8388844,1.4890985,51.8
-0.73555374,0.5956394,52.0
-1.1033306,0.89345914,52.2
5.516653,-4.467295,52.4
6.2522073,-5.062935,52.6
0.73555374,-0.5956394,52.8
0.73555374,-0.5956394,53.0
8.091091,-6.5520334,53.2
2.942215,-2.3825576,53.4
2.942215,-2.3825576,53.6
4.7810993,-3.871656,53.8
5.516653,-4.467295,54.0
5.516653,-4.467295,54.2
2.2066612,-1.7869183,54.4
6.98776,-5.658574,54.6
7.7233143,-6.2542133,54.8
7.7233143,-6.2542133,55.0
7.7233143,-6.2542133,55.2
-22.066612,17.86918,55.4
22.802164,-18.46482,59.0
22.802164,-18.46482,59.2
24.641048,-19.953918,59.6
25.00883,-20.25174,59.8
25.00883,-20.25174,60.0
-21.698835,17.571362,62.4
-21.331059,17.273542,62.6
-21.331059,17.273542,62.8
-16.182182,13.104067,69.8
-16.917736,13.699706,70.0
-17.285513,13.997525,70.2
-17.285513,13.997525,70.4
-17.285513,13.997525,70.6
-17.285513,13.997525,70.8
-16.917736,13.699706,71.0
33.467693,-27.101593,77.6
35.30658,-28.590693,77.8
35.674355,-28.888508,78.0
39.352123,-31.866705,78.2
41.926563,-33.951443,78.4
44.86878,-36.334003,78.6
45.236553,-36.63182,78.8
-16.917736,13.699706,81.6
-20.291557,14.742668,1.2
-13.782944,10.013886,5.6
-7.6571918,5.563271,5.8
-13.400085,9.735724,27.6
-23.737293,17.246138,28.8
-16.462963,11.961033,29.0
-5.7428937,4.172453,29.2
-2.2971575,1.6689813,29.4
-6.508613,4.7287803,29.6
-5.360034,3.8942895,29.8
-6.508613,4.7287803,30.0
-2.680017,1.9471447,30.2
-1.5314384,1.1126541,30.4
0.7657192,-0.55632704,30.6
7.6571918,-5.563271,30.8
8.0400505,-5.841434,31.0
8.0400505,-5.841434,31.2
7.6571918,-5.563271,31.4
7.6571918,-5.563271,31.6
7.6571918,-5.563271,31.8
7.6571918,-5.563271,32.0
7.6571918,-5.563271,32.2
7.6571918,-5.563271,32.4
7.6571918,-5.563271,32.6
7.6571918,-5.563271,32.8
7.6571918,-5.563271,33.0
7.6571918,-5.563271,33.2
7.6571918,-5.563271,33.4
7.6571918,-5.563271,33.6
7.6571918,-5.563271,33.8
7.6571918,-5.563271,34.0
7.6571918,-5.563271,34.2
7.6571918,-5.563271,34.4
7.6571918,-5.563271,34.6
7.6571918,-5.563271,34.8
7.6571918,-5.563271,35.0
7.6571918,-5.563271,35.2
7.6571918,-5.563271,35.4
7.6571918,-5.563271,35.6
7.6571918,-5.563271,35.8
7.6571918,-5.563271,36.0
7.6571918,-5.563271,36.2
7.6571918,-5.563271,36.4
7.6571918,-5.563271,36.6
7.6571918,-5.563271,36.8
7.6571918,-5.563271,37.0
7.6571918,-5.563271,37.2
7.6571918,-5.563271,37.4
7.6571918,-5.563271,37.6
7.6571918,-5.563271,37.8
7.6571918,-5.563271,38.0
7.6571918,-5.563271,38.2
7.6571918,-5.563271,38.4
7.6571918,-5.563271,38.6
7.6571918,-5.563271,38.8
7.6571918,-5.563271,39.0
7.6571918,-5.563271,39.2
7.6571918,-5.563271,39.4
7.6571918,-5.563271,39.6
7.6571918,-5.563271,39.8
7.6571918,-5.563271,40.0
7.6571918,-5.563271,40.2
7.6571918,-5.563271,40.4
7.6571918,-5.563271,40.6
7.6571918,-5.563271,40.8
7.6571918,-5.563271,41.0
7.6571918,-5.563271,41.2
7.6571918,-5.563271,41.4
7.6571918,-5.563271,41.6
7.6571918,-5.563271,41.8
7.6571918,-5.563271,42.0
7.6571918,-5.563271,42.2
7.6571918,-5.563271,42.4
8.0400505,-5.841434,42.6
8.0400505,-5.841434,42.8
8.0400505,-5.841434,43.0
8.0400505,-5.841434,43.2
8.0400505,-5.841434,43.4
8.0400505,-5.841434,43.6
8.0400505,-5.841434,43.8
8.0400505,-5.841434,44.0
8.0400505,-5.841434,44.2
8.0400505,-5.841434,44.4
8.0400505,-5.841434,44.6
8.0400505,-5.841434,44.8
8.0400505,-5.841434,45.0
8.0400505,-5.841434,45.2
8.0400505,-5.841434,45.4
8.0400505,-5.841434,45.6
8.0400505,-5.841434,45.8
8.0400505,-5.841434,46.0
8.0400505,-5.841434,46.2
8.0400505,-5.841434,46.4
8.0400505,-5.841434,46.6
8.422911,-6.119598,46.8
8.0400505,-5.841434,47.0
8.0400505,-5.841434,47.2
8.0400505,-5.841434,47.4
8.0400505,-5.841434,47.6
8.422911,-6.119598,47.8
8.80577,-6.3977613,48.0
11.868647,-8.623069,48.2
11.868647,-8.623069,48.4
8.0400505,-5.841434,48.6
8.0400505,-5.841434,48.8
8.0400505,-5.841434,49.0
11.868647,-8.623069,49.2
12.634366,-9.179397,49.4
13.017226,-9.457561,49.6
7.2743316,-5.285107,49.8
14.165804,-10.29205,50.0
6.891472,-5.006943,50.2
16.845821,-12.239196,50.4
16.845821,-12.239196,50.6
18.37726,-13.3518505,50.8
18.76012,-13.630013,51.0
-7.2743316,5.285107,51.2
-4.2114553,3.059799,51.4
-2.2971575,1.6689813,51.6
-1.1485788,0.83449066,51.8
22.971575,-16.689812,52.0
23.737293,-17.246138,52.2
23.354433,-16.967976,52.4
23.354433,-16.967976,52.6
0.3828596,-0.27816352,52.8
3.0628767,-2.2253082,53.0
2.680017,-1.9471447,53.2
-14.548663,10.570214,53.4
4.2114553,-3.059799,53.6
4.2114553,-3.059799,53.8
4.2114553,-3.059799,54.0
5.360034,-3.8942895,54.2
5.360034,-3.8942895,54.4
7.2743316,-5.285107,54.6
7.2743316,-5.285107,54.8
7.2743316,-5.285107,55.0
-22.205856,16.133486,55.2
-22.971575,16.689812,55.4
21.057276,-15.298994,58.4
24.885872,-18.08063,59.4
25.268732,-18.358793,59.6
26.034452,-18.915121,59.8
26.034452,-18.915121,60.0
-22.205856,16.133486,62.4
-22.205856,16.133486,62.6
-17.228682,12.517359,69.8
-17.61154,12.795523,70.0
-17.61154,12.795523,70.2
-17.61154,12.795523,70.4
-17.61154,12.795523,70.6
-17.61154,12.795523,70.8
-17.61154,12.795523,71.0
34.0745,-24.756554,77.6
36.75452,-26.703701,77.8
37.13738,-26.981861,78.0
40.965973,-29.763496,78.2
43.64599,-31.710642,78.4
46.708866,-33.93595,78.6
47.474586,-34.492275,78.8
-18.76012,13.630013,81.6
-7.5409617,4.8971567,10.2
-21.035316,13.660491,10.4
-21.035316,13.660491,10.6
-9.128533,5.9281373,12.2
-18.65396,12.114019,27.6
-24.210457,15.722451,28.0
-25.004244,16.237942,28.2
-3.175142,2.0619607,29.2
-2.7782493,1.8042157,29.4
-6.350284,4.1239214,29.6
-6.350284,4.1239214,29.8
-5.953391,3.8661764,30.0
-2.3813565,1.5464706,30.2
-1.1906782,0.7732353,30.4
7.9378552,-5.154902,30.6
7.5409617,-4.8971567,30.8
7.5409617,-4.8971567,31.0
7.5409617,-4.8971567,31.2
7.5409617,-4.8971567,31.4
7.5409617,-4.8971567,31.6
7.5409617,-4.8971567,31.8
7.5409617,-4.8971567,32.0
7.5409617,-4.8971567,32.2
7.5409617,-4.8971567,32.4
7.5409617,-4.8971567,32.6
7.5409617,-4.8971567,32.8
7.1440687,-4.6394114,33.0
7.5409617,-4.8971567,33.2
7.9378552,-5.154902,33.4
7.5409617,-4.8971567,33.6
7.5409617,-4.8971567,33.8
7.5409617,-4.8971567,34.0
7.5409617,-4.8971567,34.2
7.5409617,-4.8971567,34.4
7.5409617,-4.8971567,34.6
7.5409617,-4.8971567,34.8
7.5409617,-4.8971567,35.0
7.5409617,-4.8971567,35.2
7.5409617,-4.8971567,35.4
7.5409617,-4.8971567,35.6
7.5409617,-4.8971567,35.8
7.5409617,-4.8971567,36.0
7.5409617,-4.8971567,36.2
7.5409617,-4.8971567,36.4
7.5409617,-4.8971567,36.6
7.5409617,-4.8971567,36.8
7.5409617,-4.8971567,37.0
7.5409617,-4.8971567,37.2
7.5409617,-4.8971567,37.4
7.5409617,-4.8971567,37.6
7.5409617,-4.8971567,37.8
7.5409617,-4.8971567,38.0
7.5409617,-4.8971567,38.2
7.5409617,-4.8971567,38.4
7.5409617,-4.8971567,38.6
7.5409617,-4.8971567,38.8
7.5409617,-4.8971567,39.0
7.5409617,-4.8971567,39.2
7.5409617,-4.8971567,39.4
7.9378552,-5.154902,39.6
7.5409617,-4.8971567,39.8
7.5409617,-4.8971567,40.0
7.5409617,-4.8971567,40.2
7.5409617,-4.8971567,40.4
7.5409617,-4.8971567,40.6
7.5409617,-4.8971567,40.8
7.5409617,-4.8971567,41.0
7.5409617,-4.8971567,41.2
7.5409617,-4.8971567,41.4
7.5409617,-4.8971567,41.6
7.5409617,-4.8971567,41.8
7.5409617,-4.8971567,42.0
7.9378552,-5.154902,42.2
7.5409617,-4.8971567,42.4
7.9378552,-5.154902,42.6
7.5409617,-4.8971567,42.8
7.5409617,-4.8971567,43.0
8.334747,-5.412647,43.2
7.9378552,-5.154902,43.4
7.9378552,-5.154902,43.6
8.334747,-5.412647,43.8
7.5409617,-4.8971567,44.0
7.5409617,-4.8971567,44.2
7.9378552,-5.154902,44.4
7.9378552,-5.154902,44.6
7.9378552,-5.154902,44.8
7.9378552,-5.154902,45.0
7.5409617,-4.8971567,45.2
7.9378552,-5.154902,45.4
8.334747,-5.412647,45.6
8.334747,-5.412647,45.8
7.9378552,-5.154902,46.0
7.9378552,-5.154902,46.2
7.9378552,-5.154902,46.4
7.9378552,-5.154902,46.6
7.9378552,-5.154902,46.8
7.9378552,-5.154902,47.0
7.9378552,-5.154902,47.2
7.9378552,-5.154902,47.4
7.9378552,-5.154902,47.6
7.9378552,-5.154902,47.8
7.9378552,-5.154902,48.0
7.9378552,-5.154902,48.2
8.334747,-5.412647,48.4
8.334747,-5.412647,48.6
8.334747,-5.412647,48.8
7.5409617,-4.8971567,49.0
7.5409617,-4.8971567,49.2
6.747177,-4.381667,49.4
6.747177,-4.381667,49.6
15.478818,-10.052059,49.8
15.478818,-10.052059,50.0
6.747177,-4.381667,50.2
5.953391,-3.8661764,50.4
6.747177,-4.381667,50.6
7.1440687,-4.6394114,50.8
7.1440687,-4.6394114,51.0
7.1440687,-4.6394114,51.2
-7.1440687,4.6394114,51.4
-1.587571,1.0309803,51.6
-1.1906782,0.7732353,51.8
23.813564,-15.464705,52.0
24.60735,-15.980196,52.2
23.416672,-15.206961,52.4
23.813564,-15.464705,52.6
0.7937855,-0.5154902,52.8
0.7937855,-0.5154902,53.0
2.3813565,-1.5464706,53.2
3.175142,-2.0619607,53.4
3.5720344,-2.3197057,53.6
4.3658204,-2.8351963,53.8
3.5720344,-2.3197057,54.0
5.1596055,-3.3506863,54.2
5.5564985,-3.6084313,54.4
7.1440687,-4.6394114,54.6
7.9378552,-5.154902,54.8
7.9378552,-5.154902,55.0
-21.829102,14.175981,55.2
24.60735,-15.980196,59.0
26.19492,-17.011177,59.4
26.19492,-17.011177,59.6
30.957636,-20.104118,60.8
30.957636,-20.104118,61.0
31.751421,-20.619608,61.2
31.751421,-20.619608,61.4
-23.01978,14.949216,62.4
-23.01978,14.949216,62.6
36.11724,-23.454803,77.6
38.101704,-24.74353,77.8
38.498596,-25.001274,78.0
42.46752,-27.578724,78.2
44.45199,-28.86745,78.4
48.420914,-31.444902,78.6
49.2147,-31.960392,78.8
-18.257067,11.856275,81.6
-21.311586,12.304242,1.0
17.623045,-10.174663,6.0
-22.95094,13.250722,7.4
-19.262396,11.121141,8.0
12.295146,-7.0986013,9.6
9.016441,-5.2056413,11.2
-21.721426,12.540863,27.2
-22.541101,13.014102,27.4
-24.590292,14.197203,27.8
-17.213205,9.938042,28.2
-7.377087,4.2591605,28.4
-19.262396,11.121141,29.0
-2.8688674,1.6563402,29.2
-2.4590294,1.4197203,29.4
-6.96725,4.022541,29.6
-6.557411,3.7859206,29.8
-4.098382,2.3662004,30.0
-6.96725,4.022541,30.2
-6.96725,4.022541,30.4
8.196764,-4.732401,30.6
7.786926,-4.495781,30.8
7.786926,-4.495781,31.0
7.786926,-4.495781,31.2
7.786926,-4.495781,31.4
7.786926,-4.495781,31.6
7.786926,-4.495781,31.8
7.786926,-4.495781,32.0
7.786926,-4.495781,32.2
7.377087,-4.2591605,32.4
7.786926,-4.495781,32.6
7.786926,-4.495781,32.8
7.377087,-4.2591605,33.0
7.786926,-4.495781,33.2
7.786926,-4.495781,33.4
7.786926,-4.495781,33.6
7.786926,-4.495781,33.8
7.786926,-4.495781,34.0
7.786926,-4.495781,34.2
7.786926,-4.495781,34.4
7.786926,-4.495781,34.6
7.786926,-4.495781,34.8
7.786926,-4.495781,35.0
7.786926,-4.495781,35.2
7.786926,-4.495781,35.4
7.786926,-4.495781,35.6
7.786926,-4.495781,35.8
7.786926,-4.495781,36.0
7.786926,-4.495781,36.2
7.786926,-4.495781,36.4
7.786926,-4.495781,36.6
7.786926,-4.495781,36.8
7.786926,-4.495781,37.0
7.786926,-4.495781,37.2
7.786926,-4.495781,37.4
7.786926,-4.495781,37.6
7.786926,-4.495781,37.8
8.196764,-4.732401,38.0
7.786926,-4.495781,38.2
7.786926,-4.495781,38.4
7.786926,-4.495781,38.6
7.786926,-4.495781,38.8
7.786926,-4.495781,39.0
7.786926,-4.495781,39.2
7.786926,-4.495781,39.4
7.786926,-4.495781,39.6
7.786926,-4.495781,39.8
7.786926,-4.495781,40.0
7.786926,-4.495781,40.2
7.786926,-4.495781,40.4
7.786926,-4.495781,40.6
7.786926,-4.495781,40.8
7.786926,-4.495781,41.0
7.786926,-4.495781,41.2
7.786926,-4.495781,41.4
7.786926,-4.495781,41.6
7.786926,-4.495781,41.8
8.196764,-4.732401,42.0
8.196764,-4.732401,42.2
7.786926,-4.495781,42.4
8.196764,-4.732401,42.6
7.786926,-4.495781,42.8
7.786926,-4.495781,43.0
8.196764,-4.732401,43.2
7.786926,-4.495781,43.4
8.196764,-4.732401,43.6
8.606603,-4.969021,43.8
8.606603,-4.969021,44.0
8.196764,-4.732401,44.2
8.196764,-4.732401,44.4
8.196764,-4.732401,44.6
8.196764,-4.732401,44.8
7.786926,-4.495781,45.0
8.196764,-4.732401,45.2
8.196764,-4.732401,45.4
8.606603,-4.969021,45.6
8.606603,-4.969021,45.8
8.196764,-4.732401,46.0
8.196764,-4.732401,46.2
8.196764,-4.732401,46.4
8.196764,-4.732401,46.6
8.196764,-4.732401,46.8
8.196764,-4.732401,47.0
8.196764,-4.732401,47.2
8.196764,-4.732401,47.4
8.196764,-4.732401,47.6
8.196764,-4.732401,47.8
8.196764,-4.732401,48.0
12.295146,-7.0986013,48.2
8.196764,-4.732401,48.4
8.196764,-4.732401,48.6
8.196764,-4.732401,48.8
7.377087,-4.2591605,49.0
7.377087,-4.2591605,49.2
7.786926,-4.495781,49.4
7.786926,-4.495781,49.6
7.786926,-4.495781,49.8
7.786926,-4.495781,50.0
6.96725,-4.022541,50.2
5.737735,-3.3126805,50.4
7.377087,-4.2591605,50.6
7.377087,-4.2591605,50.8
7.786926,-4.495781,51.0
7.786926,-4.495781,51.2
7.377087,-4.2591605,51.4
-2.8688674,1.6563402,51.6
0.4098382,-0.23662004,51.8
2.4590294,-1.4197203,52.0
24.590292,-14.197203,52.2
24.590292,-14.197203,52.4
24.180454,-13.960583,52.6
0.8196764,-0.47324008,52.8
15.983691,-9.228182,53.0
16.393528,-9.464802,53.2
2.4590294,-1.4197203,53.4
4.5082207,-2.6028206,53.6
4.5082207,-2.6028206,53.8
5.3278966,-3.0760605,54.0
5.737735,-3.3126805,54.2
6.147573,-3.5493007,54.4
7.786926,-4.495781,54.6
7.786926,-4.495781,54.8
8.606603,-4.969021,55.0
-23.360777,13.487342,55.2
-24.180454,13.960583,55.4
18.032883,-10.411283,57.0
18.44272,-10.6479025,57.2
20.901749,-12.067622,57.8
21.721426,-12.540863,58.0
22.131264,-12.777483,58.2
25.409967,-14.670443,59.0
25.819807,-14.9070635,59.2
26.229645,-15.1436825,59.4
26.639484,-15.380302,59.6
-23.770617,13.723963,62.4
-23.770617,13.723963,62.6
37.295277,-21.532425,77.6
39.34447,-22.715525,77.8
39.754303,-22.952143,78.0
43.852688,-25.318344,78.2
46.311718,-26.738064,78.4
49.590424,-28.631025,78.6
50.819935,-29.340885,78.8
-18.44272,10.6479025,81.6
-21.504671,10.957177,0.6
-0.8433204,0.42969322,11.2
-6.7465634,3.4375458,26.4
-6.7465634,3.4375458,26.6
-25.721272,13.105643,27.2
-18.13139,9.238405,27.4
-25.721272,13.105643,27.6
-25.299612,12.890797,27.8
-26.564594,13.535337,28.6
-25.721272,13.105643,28.8
-25.721272,13.105643,29.0
-25.721272,13.105643,29.2
-2.9516215,1.5039263,29.4
-7.168224,3.6523926,29.6
-7.168224,3.6523926,29.8
-7.168224,3.6523926,30.0
-2.9516215,1.5039263,30.2
-6.324903,3.2226992,30.4
8.433205,-4.296932,30.6
8.011544,-4.0820856,30.8
8.011544,-4.0820856,31.0
8.011544,-4.0820856,31.2
8.011544,-4.0820856,31.4
8.011544,-4.0820856,31.6
7.589883,-3.8672388,31.8
8.011544,-4.0820856,32.0
7.589883,-3.8672388,32.2
8.011544,-4.0820856,32.4
8.011544,-4.0820856,32.6
7.589883,-3.8672388,32.8
7.589883,-3.8672388,33.0
8.011544,-4.0820856,33.2
8.011544,-4.0820856,33.4
8.011544,-4.0820856,33.6
8.011544,-4.0820856,33.8
8.011544,-4.0820856,34.0
8.011544,-4.0820856,34.2
8.011544,-4.0820856,34.4
8.011544,-4.0820856,34.6
8.011544,-4.0820856,34.8
8.011544,-4.0820856,35.0
8.011544,-4.0820856,35.2
8.011544,-4.0820856,35.4
8.011544,-4.0820856,35.6
8.011544,-4.0820856,35.8
8.011544,-4.0820856,36.0
8.011544,-4.0820856,36.2
8.011544,-4.0820856,36.4
8.011544,-4.0820856,36.6
8.011544,-4.0820856,36.8
8.011544,-4.0820856,37.0
8.011544,-4.0820856,37.2
8.011544,-4.0820856,37.4
8.011544,-4.0820856,37.6
8.011544,-4.0820856,37.8
8.011544,-4.0820856,38.0
8.011544,-4.0820856,38.2
8.011544,-4.0820856,38.4
8.011544,-4.0820856,38.6
8.011544,-4.0820856,38.8
8.011544,-4.0820856,39.0
8.011544,-4.0820856,39.2
8.011544,-4.0820856,39.4
8.011544,-4.0820856,39.6
8.433205,-4.296932,39.8
8.433205,-4.296932,40.0
8.011544,-4.0820856,40.2
8.011544,-4.0820856,40.4
8.011544,-4.0820856,40.6
8.011544,-4.0820856,40.8
8.011544,-4.0820856,41.0
8.011544,-4.0820856,41.2
8.011544,-4.0820856,41.4
8.011544,-4.0820856,41.6
8.011544,-4.0820856,41.8
8.011544,-4.0820856,42.0
8.011544,-4.0820856,42.2
8.011544,-4.0820856,42.4
8.433205,-4.296932,42.6
8.854864,-4.511779,42.8
8.011544,-4.0820856,43.0
8.433205,-4.296932,43.2
8.433205,-4.296932,43.4
8.433205,-4.296932,43.6
8.433205,-4.296932,43.8
8.433205,-4.296932,44.0
8.433205,-4.296932,44.2
8.011544,-4.0820856,44.4
8.433205,-4.296932,44.6
8.011544,-4.0820856,44.8
8.011544,-4.0820856,45.0
8.011544,-4.0820856,45.2
8.433205,-4.296932,45.4
8.854864,-4.511779,45.6
8.854864,-4.511779,45.8
8.433205,-4.296932,46.0
8.433205,-4.296932,46.2
8.433205,-4.296932,46.4
8.433205,-4.296932,46.6
8.433205,-4.296932,46.8
8.433205,-4.296932,47.0
8.433205,-4.296932,47.2
8.433205,-4.296932,47.4
8.433205,-4.296932,47.6
8.433205,-4.296932,47.8
8.433205,-4.296932,48.0
13.493127,-6.8750916,48.2
13.493127,-6.8750916,48.4
8.854864,-4.511779,48.6
8.011544,-4.0820856,48.8
8.433205,-4.296932,49.0
9.276525,-4.726626,49.2
8.011544,-4.0820856,49.4
8.011544,-4.0820856,49.6
15.601428,-7.9493246,49.8
-16.023088,8.164171,50.0
7.168224,-3.6523926,50.2
7.168224,-3.6523926,50.4
7.589883,-3.8672388,50.6
7.589883,-3.8672388,50.8
5.4815826,-2.793006,51.0
8.011544,-4.0820856,51.2
-5.0599227,2.5781596,51.4
-3.3732817,1.7187729,51.6
0.4216602,-0.21484661,51.8
1.2649807,-0.6445399,52.0
25.299612,-12.890797,52.2
24.877953,-12.67595,52.4
24.877953,-12.67595,52.6
16.44475,-8.379019,52.8
16.86641,-8.593864,53.0
16.86641,-8.593864,53.2
3.3732817,-1.7187729,53.4
3.7949414,-1.9336194,53.6
4.2166023,-2.148466,53.8
5.4815826,-2.793006,54.0
5.0599227,-2.5781596,54.2
-19.39637,9.882944,54.4
7.589883,-3.8672388,54.6
8.433205,-4.296932,54.8
8.854864,-4.511779,55.0
9.276525,-4.726626,55.2
-25.721272,13.105643,55.4
23.19131,-11.816564,58.2
23.19131,-11.816564,58.4
27.829573,-14.179876,59.4
28.672895,-14.6095705,59.8
28.672895,-14.6095705,60.0
31.202856,-15.898649,60.6
-24.456293,12.461104,62.4
-24.456293,12.461104,62.6
37.527756,-19.121347,77.6
40.47938,-20.625277,77.8
40.90104,-20.84012,78.0
45.11764,-22.988586,78.2
48.49092,-24.70736,78.4
51.020885,-25.99644,78.6
52.285866,-26.64098,78.8
-21.504671,10.957177,81.6
-2.5939596,1.1549047,10.2
-11.672818,5.197071,10.4
-14.266777,6.3519754,27.0
-27.236576,12.126499,27.6
-8.214205,3.657198,28.0
-22.048656,9.8166895,28.4
-22.048656,9.8166895,28.6
-24.642614,10.971594,28.8
-27.236576,12.126499,29.0
-25.939594,11.5490465,29.2
-3.0262861,1.3473887,29.4
-7.3495526,3.27223,29.6
-7.3495526,3.27223,29.8
-5.6202455,2.5022933,30.0
-3.4586127,1.5398729,30.2
-6.4848986,2.8872616,30.4
8.646532,-3.8496823,30.6
8.214205,-3.657198,30.8
7.7818775,-3.4647136,31.0
8.214205,-3.657198,31.2
8.214205,-3.657198,31.4
7.7818775,-3.4647136,31.6
8.214205,-3.657198,31.8
8.214205,-3.657198,32.0
8.214205,-3.657198,32.2
8.214205,-3.657198,32.4
8.214205,-3.657198,32.6
7.7818775,-3.4647136,32.8
7.7818775,-3.4647136,33.0
8.214205,-3.657198,33.2
8.214205,-3.657198,33.4
8.214205,-3.657198,33.6
8.214205,-3.657198,33.8
8.214205,-3.657198,34.0
8.214205,-3.657198,34.2
8.214205,-3.657198,34.4
8.214205,-3.657198,34.6
8.214205,-3.657198,34.8
8.214205,-3.657198,35.0
8.214205,-3.657198,35.2
8.214205,-3.657198,35.4
8.214205,-3.657198,35.6
8.214205,-3.657198,35.8
8.214205,-3.657198,36.0
8.214205,-3.657198,36.2
8.214205,-3.657198,36.4
8.214205,-3.657198,36.6
8.214205,-3.657198,36.8
8.214205,-3.657198,37.0
8.214205,-3.657198,37.2
8.214205,-3.657198,37.4
8.214205,-3.657198,37.6
8.214205,-3.657198,37.8
8.214205,-3.657198,38.0
8.214205,-3.657198,38.2
8.214205,-3.657198,38.4
8.214205,-3.657198,38.6
8.214205,-3.657198,38.8
8.214205,-3.657198,39.0
8.214205,-3.657198,39.2
8.214205,-3.657198,39.4
8.214205,-3.657198,39.6
8.214205,-3.657198,39.8
8.214205,-3.657198,40.0
8.214205,-3.657198,40.2
8.214205,-3.657198,40.4
8.214205,-3.657198,40.6
8.214205,-3.657198,40.8
8.214205,-3.657198,41.0
8.214205,-3.657198,41.2
7.7818775,-3.4647136,41.4
8.214205,-3.657198,41.6
8.214205,-3.657198,41.8
8.214205,-3.657198,42.0
8.214205,-3.657198,42.2
8.214205,-3.657198,42.4
8.646532,-3.8496823,42.6
8.214205,-3.657198,42.8
8.214205,-3.657198,43.0
8.646532,-3.8496823,43.2
8.214205,-3.657198,43.4
8.646532,-3.8496823,43.6
8.214205,-3.657198,43.8
8.214205,-3.657198,44.0
8.214205,-3.657198,44.2
8.214205,-3.657198,44.4
8.646532,-3.8496823,44.6
8.646532,-3.8496823,44.8
8.214205,-3.657198,45.0
8.646532,-3.8496823,45.2
9.078858,-4.042166,45.4
9.078858,-4.042166,45.6
8.646532,-3.8496823,45.8
8.646532,-3.8496823,46.0
9.078858,-4.042166,46.2
8.646532,-3.8496823,46.4
8.646532,-3.8496823,46.6
8.646532,-3.8496823,46.8
8.646532,-3.8496823,47.0
8.646532,-3.8496823,47.2
8.646532,-3.8496823,47.4
8.646532,-3.8496823,47.6
8.646532,-3.8496823,47.8
8.646532,-3.8496823,48.0
12.969797,-5.7745233,48.2
8.214205,-3.657198,48.4
8.214205,-3.657198,48.6
13.402123,-5.967007,48.8
13.402123,-5.967007,49.0
8.646532,-3.8496823,49.2
8.214205,-3.657198,49.4
8.214205,-3.657198,49.6
16.860737,-7.5068803,49.8
17.293064,-7.6993647,50.0
-15.996083,7.121912,50.2
6.4848986,-2.8872616,50.4
8.214205,-3.657198,50.6
6.4848986,-2.8872616,50.8
8.646532,-3.8496823,51.0
9.078858,-4.042166,51.2
-9.078858,4.042166,51.4
-1.2969798,0.57745236,51.6
-0.86465317,0.38496822,51.8
2.161633,-0.9624206,52.0
25.939594,-11.5490465,52.2
25.507269,-11.356563,52.4
25.507269,-11.356563,52.6
16.860737,-7.5068803,52.8
-14.699105,6.54446,53.0
17.293064,-7.6993647,53.2
-15.996083,7.121912,53.4
-17.72539,7.8918486,53.6
4.755593,-2.1173253,53.8
5.187919,-2.3098094,54.0
5.6202455,-2.5022933,54.2
4.755593,-2.1173253,54.4
7.7818775,-3.4647136,54.6
8.214205,-3.657198,54.8
-22.91331,10.201658,55.0
-24.642614,10.971594,55.2
18.590044,-8.276817,56.6
18.590044,-8.276817,56.8
19.022371,-8.469301,57.0
19.887022,-8.854269,57.2
22.480982,-10.009173,58.0
23.345636,-10.394142,58.2
23.777962,-10.586626,58.4
24.642614,-10.971594,58.6
26.804247,-11.934014,59.0
26.804247,-11.934014,59.2
27.668901,-12.318983,59.4
28.96588,-12.896435,59.8
29.39821,-13.08892,60.0
33.721474,-15.013761,61.0
34.58613,-15.398729,61.2
34.58613,-15.398729,61.4
-25.074942,11.164079,62.6
38.477062,-17.131084,77.6
41.503353,-18.478476,77.8
42.368008,-18.863443,78.0
46.25894,-20.595798,78.2
48.8529,-21.750704,78.4
52.311516,-23.290577,78.6
53.608494,-23.868029,78.8
-22.048656,9.8166895,81.6
-18.997744,7.2925425,5.8
0.0,-0.0,10.6
-26.06667,10.006046,26.6
-26.950285,10.345234,28.4
-22.532206,8.649294,28.6
-3.0926557,1.187158,29.4
-7.510736,2.8830984,29.6
-7.510736,2.8830984,29.8
-4.8598876,1.8655342,30.0
-7.510736,2.8830984,30.2
-7.510736,2.8830984,30.4
8.83616,-3.3918803,30.6
8.394351,-3.222286,30.8
8.394351,-3.222286,31.0
8.394351,-3.222286,31.2
8.394351,-3.222286,31.4
7.952543,-3.052692,31.6
8.394351,-3.222286,31.8
8.394351,-3.222286,32.0
8.394351,-3.222286,32.2
7.952543,-3.052692,32.4
7.952543,-3.052692,32.6
7.952543,-3.052692,32.8
7.952543,-3.052692,33.0
8.394351,-3.222286,33.2
8.394351,-3.222286,33.4
8.394351,-3.222286,33.6
8.394351,-3.222286,33.8
8.394351,-3.222286,34.0
8.394351,-3.222286,34.2
8.394351,-3.222286,34.4
8.394351,-3.222286,34.6
8.394351,-3.222286,34.8
8.394351,-3.222286,35.0
8.394351,-3.222286,35.2
8.394351,-3.222286,35.4
8.394351,-3.222286,35.6
8.394351,-3.222286,35.8
8.394351,-3.222286,36.0
8.394351,-3.222286,36.2
8.394351,-3.222286,36.4
8.394351,-3.222286,36.6
8.83616,-3.3918803,36.8
8.394351,-3.222286,37.0
8.394351,-3.222286,37.2
8.394351,-3.222286,37.4
8.394351,-3.222286,37.6
8.394351,-3.222286,37.8
8.394351,-3.222286,38.0
8.394351,-3.222286,38.2
8.394351,-3.222286,38.4
8.394351,-3.222286,38.6
8.394351,-3.222286,38.8
8.394351,-3.222286,39.0
8.394351,-3.222286,39.2
8.394351,-3.222286,39.4
8.394351,-3.222286,39.6
8.394351,-3.222286,39.8
8.83616,-3.3918803,40.0
8.394351,-3.222286,40.2
8.394351,-3.222286,40.4
8.394351,-3.222286,40.6
8.394351,-3.222286,40.8
8.394351,-3.222286,41.0
8.394351,-3.222286,41.2
8.394351,-3.222286,41.4
8.394351,-3.222286,41.6
8.394351,-3.222286,41.8
8.394351,-3.222286,42.0
8.394351,-3.222286,42.2
8.394351,-3.222286,42.4
8.83616,-3.3918803,42.6
8.394351,-3.222286,42.8
8.394351,-3.222286,43.0
8.394351,-3.222286,43.2
8.83616,-3.3918803,43.4
8.394351,-3.222286,43.6
8.394351,-3.222286,43.8
8.83616,-3.3918803,44.0
8.83616,-3.3918803,44.2
8.83616,-3.3918803,44.4
8.394351,-3.222286,44.6
8.83616,-3.3918803,44.8
8.394351,-3.222286,45.0
8.394351,-3.222286,45.2
8.83616,-3.3918803,45.4
9.277967,-3.561474,45.6
9.277967,-3.561474,45.8
8.83616,-3.3918803,46.0
8.83616,-3.3918803,46.2
8.83616,-3.3918803,46.4
8.83616,-3.3918803,46.6
8.83616,-3.3918803,46.8
8.83616,-3.3918803,47.0
8.83616,-3.3918803,47.2
8.83616,-3.3918803,47.4
8.83616,-3.3918803,47.6
8.83616,-3.3918803,47.8
8.83616,-3.3918803,48.0
8.83616,-3.3918803,48.2
8.83616,-3.3918803,48.4
7.952543,-3.052692,48.6
8.394351,-3.222286,48.8
7.952543,-3.052692,49.0
7.952543,-3.052692,49.2
7.952543,-3.052692,49.4
8.394351,-3.222286,49.6
16.346895,-6.274978,49.8
-17.23051,6.6141667,50.0
6.6271195,-2.54391,50.2
7.0689273,-2.713504,50.4
20.764975,-7.970918,50.6
7.952543,-3.052692,50.8
21.206783,-8.140512,51.0
-8.394351,3.222286,51.2
-4.8598876,1.8655342,51.4
-1.325424,0.508782,51.6
-0.44180796,0.169594,51.8
26.508478,-10.17564,52.0
26.508478,-10.17564,52.2
26.508478,-10.17564,52.4
7.0689273,-2.713504,52.6
17.23051,-6.6141667,52.8
17.23051,-6.6141667,53.0
17.67232,-6.7837605,53.2
3.5344636,-1.356752,53.4
4.8598876,-1.8655342,53.6
4.8598876,-1.8655342,53.8
4.8598876,-1.8655342,54.0
6.1853113,-2.374316,54.2
6.6271195,-2.54391,54.4
7.0689273,-2.713504,54.6
8.83616,-3.3918803,54.8
9.277967,-3.561474,55.0
9.719775,-3.7310684,55.2
-26.06667,10.006046,55.4
18.555935,-7.122948,56.8
22.974014,-8.818888,58.0
23.85763,-9.158076,58.2
27.392094,-10.514828,59.0
27.833902,-10.6844225,59.2
28.717518,-11.02361,59.4
36.67006,-14.076303,61.6
-25.624863,9.8364525,62.6
40.204525,-15.433055,77.6
42.413567,-16.281025,77.8
42.85537,-16.450619,78.0
47.27345,-18.146557,78.2
49.48249,-18.994528,78.4
53.458763,-20.520874,78.6
54.784187,-21.029655,78.8
-22.090399,8.4797,81.6
13.502349,-4.3871784,0.2
-13.052271,4.240939,4.8
-28.354933,9.213075,27.0
-26.554619,8.628118,27.2
-27.004698,8.774357,27.4
-27.454775,8.920595,27.6
-22.953993,7.458203,27.8
-20.253523,6.5807676,29.0
-3.150548,1.023675,29.2
-2.2503915,0.7311964,29.4
-3.150548,1.023675,29.6
-7.201253,2.3398285,29.8
-7.6513314,2.4860678,30.0
-7.6513314,2.4860678,30.2
6.7511744,-2.1935892,30.4
6.7511744,-2.1935892,30.6
6.7511744,-2.1935892,30.8
6.7511744,-2.1935892,31.0
6.7511744,-2.1935892,31.2
6.7511744,-2.1935892,31.4
6.7511744,-2.1935892,31.6
6.7511744,-2.1935892,31.8
6.7511744,-2.1935892,32.0
6.7511744,-2.1935892,32.2
6.7511744,-2.1935892,32.4
6.7511744,-2.1935892,32.6
6.7511744,-2.1935892,32.8
6.7511744,-2.1935892,33.0
6.7511744,-2.1935892,33.2
6.7511744,-2.1935892,33.4
6.7511744,-2.1935892,33.6
6.7511744,-2.1935892,33.8
6.7511744,-2.1935892,34.0
6.7511744,-2.1935892,34.2
6.7511744,-2.1935892,34.4
6.7511744,-2.1935892,34.6
6.7511744,-2.1935892,34.8
6.7511744,-2.1935892,35.0
6.7511744,-2.1935892,35.2
6.7511744,-2.1935892,35.4
6.7511744,-2.1935892,35.6
6.7511744,-2.1935892,35.8
6.7511744,-2.1935892,36.0
6.7511744,-2.1935892,36.2
6.7511744,-2.1935892,36.4
6.7511744,-2.1935892,36.6
6.7511744,-2.1935892,36.8
6.7511744,-2.1935892,37.0
6.7511744,-2.1935892,37.2
6.7511744,-2.1935892,37.4
6.7511744,-2.1935892,37.6
6.7511744,-2.1935892,37.8
6.7511744,-2.1935892,38.0
6.7511744,-2.1935892,38.2
6.7511744,-2.1935892,38.4
6.7511744,-2.1935892,38.6
6.7511744,-2.1935892,38.8
6.7511744,-2.1935892,39.0
6.7511744,-2.1935892,39.2
6.7511744,-2.1935892,39.4
6.7511744,-2.1935892,39.6
6.7511744,-2.1935892,39.8
6.7511744,-2.1935892,40.0
6.7511744,-2.1935892,40.2
6.7511744,-2.1935892,40.4
6.7511744,-2.1935892,40.6
6.7511744,-2.1935892,40.8
6.7511744,-2.1935892,41.0
6.7511744,-2.1935892,41.2
6.7511744,-2.1935892,41.4
6.7511744,-2.1935892,41.6
6.7511744,-2.1935892,41.8
6.7511744,-2.1935892,42.0
6.7511744,-2.1935892,42.2
6.7511744,-2.1935892,42.4
6.7511744,-2.1935892,42.6
6.7511744,-2.1935892,42.8
6.7511744,-2.1935892,43.0
6.7511744,-2.1935892,43.2
6.7511744,-2.1935892,43.4
6.7511744,-2.1935892,43.6
6.7511744,-2.1935892,43.8
6.7511744,-2.1935892,44.0
6.7511744,-2.1935892,44.2
6.7511744,-2.1935892,44.4
6.7511744,-2.1935892,44.6
6.7511744,-2.1935892,44.8
6.7511744,-2.1935892,45.0
7.201253,-2.3398285,45.2
6.7511744,-2.1935892,45.4
6.7511744,-2.1935892,45.6
6.7511744,-2.1935892,45.8
6.7511744,-2.1935892,46.0
7.201253,-2.3398285,46.2
6.7511744,-2.1935892,46.4
6.7511744,-2.1935892,46.6
7.201253,-2.3398285,46.8
6.7511744,-2.1935892,47.0
6.7511744,-2.1935892,47.2
7.201253,-2.3398285,47.4
7.6513314,-2.4860678,47.6
13.952427,-4.533417,47.8
15.752741,-5.118375,48.0
16.202818,-5.2646136,48.2
6.7511744,-2.1935892,48.4
6.7511744,-2.1935892,48.6
6.7511744,-2.1935892,48.8
13.952427,-4.533417,49.0
5.8510175,-1.9011105,49.2
15.752741,-5.118375,49.4
16.652897,-5.410853,49.6
17.102974,-5.557092,49.8
5.8510175,-1.9011105,50.0
-14.852584,4.825896,50.2
-13.952427,4.533417,50.4
6.301096,-2.04735,50.6
6.7511744,-2.1935892,50.8
5.8510175,-1.9011105,51.0
-7.201253,2.3398285,51.2
-8.101409,2.6323068,51.4
-0.4500783,0.14623928,51.6
0.4500783,-0.14623928,51.8
4.0507045,-1.3161534,52.0
6.7511744,-2.1935892,52.2
6.7511744,-2.1935892,52.4
6.7511744,-2.1935892,52.6
0.9001566,-0.29247856,52.8
23.40407,-7.604442,53.0
2.70047,-0.8774357,53.2
2.70047,-0.8774357,53.4
3.6006265,-1.1699142,53.6
4.9508615,-1.6086321,53.8
4.500783,-1.4623928,54.0
6.301096,-2.04735,54.2
6.7511744,-2.1935892,54.4
7.6513314,-2.4860678,54.6
9.001566,-2.9247856,54.8
9.451644,-3.0710247,55.0
9.901723,-3.2172642,55.2
12.152114,-3.9484606,55.4
19.353369,-6.288289,56.8
19.803446,-6.4345284,57.0
20.703602,-6.7270064,57.2
24.304228,-7.896921,58.2
24.754307,-8.04316,58.4
28.354933,-9.213075,59.2
28.805012,-9.359314,59.4
29.705168,-9.651792,59.6
35.10611,-11.406664,61.0
-26.104542,8.481878,62.6
-26.104542,8.481878,62.8
-20.253523,6.5807676,69.8
-20.703602,6.7270064,70.0
-20.253523,6.5807676,70.2
-20.703602,6.7270064,70.4
-20.703602,6.7270064,70.6
-20.703602,6.7270064,70.8
-20.703602,6.7270064,71.0
40.957127,-13.307775,77.6
43.20752,-14.038971,77.8
43.657593,-14.185209,78.0
47.7083,-15.501364,78.2
51.308926,-16.671276,78.4
54.459473,-17.694952,78.6
55.809708,-18.133669,78.8
-22.503916,7.311964,81.6
9.599416,-2.5721536,0.6
-7.313841,1.9597361,0.8
-3.1998055,0.85738456,9.8
-26.055557,6.9815598,26.8
-11.427876,3.0620878,27.0
-23.312868,6.246659,27.8
5.942496,-1.5922855,28.8
-2.7426906,0.7349011,29.2
-2.2855754,0.6124176,29.4
-2.2855754,0.6124176,29.6
-7.7709565,2.0822198,29.8
-7.313841,1.9597361,30.0
6.399611,-1.7147691,30.2
6.399611,-1.7147691,30.4
6.8567257,-1.8372526,30.6
6.8567257,-1.8372526,30.8
6.399611,-1.7147691,31.0
6.399611,-1.7147691,31.2
6.399611,-1.7147691,31.4
6.399611,-1.7147691,31.6
6.399611,-1.7147691,31.8
6.399611,-1.7147691,32.0
6.399611,-1.7147691,32.2
6.399611,-1.7147691,32.4
6.399611,-1.7147691,32.6
6.399611,-1.7147691,32.8
6.399611,-1.7147691,33.0
6.399611,-1.7147691,33.2
6.399611,-1.7147691,33.4
6.399611,-1.7147691,33.6
6.399611,-1.7147691,33.8
6.399611,-1.7147691,34.0
6.399611,-1.7147691,34.2
6.399611,-1.7147691,34.4
6.399611,-1.7147691,34.6
6.399611,-1.7147691,34.8
6.399611,-1.7147691,35.0
6.399611,-1.7147691,35.2
6.399611,-1.7147691,35.4
6.399611,-1.7147691,35.6
6.399611,-1.7147691,35.8
6.399611,-1.7147691,36.0
6.399611,-1.7147691,36.2
6.399611,-1.7147691,36.4
6.399611,-1.7147691,36.6
6.399611,-1.7147691,36.8
6.399611,-1.7147691,37.0
6.399611,-1.7147691,37.2
6.399611,-1.7147691,37.4
6.399611,-1.7147691,37.6
6.399611,-1.7147691,37.8
